# 3D point list with one line of data per point:
#   POINT3D_ID, X, Y, Z, R, G, B, ERROR, TRACK[] as (IMAGE_ID, POINT2D_IDX)
# Number of points: 381, mean track length: 4.551991945922623
1559 6.5698613541514446 1.6845470562833971 4.0190384313047245 64 109 151 1.906361002858916 38 4601 34 7253 12 2439
2955 3.164817514878016 4.827781786307181 0.79790680774193523 6 12 20 1.1615564721957341 31 8625 14 10320 13 6962 12 7949
1560 6.9213444218716917 1.9344230530383038 3.6805997967698283 176 172 143 1.7839852050199381 37 11006 34 7317
1562 2.1104500265476482 3.4646788457625903 1.5336287111068168 2 10 25 0.33791885506464203 33 2822 34 7380
1568 1.5138438914740961 3.9727438760832148 1.1407584107320217 51 135 202 0.59443761364224856 33 3093 34 7547 32 6145
2909 -1.0023192096281472 -0.45530926714689507 3.908252906537566 114 130 162 1.9768802004526291 30 6832 14 4162 13 6355 12 5268
1570 2.1000959724202302 3.9198222083496388 1.2161596557166596 7 10 17 0.58166377385987644 33 3049 34 7588 31 3861
3265 1.2317585118724732 -2.357516881936816 5.1422546632954003 15 20 52 0.74276089261399636 15 11335 13 1082
2390 2.1373177207639609 2.6047151501651338 0.19206000779499172 79 119 149 0.1785444837427492 31 8137 30 6663 13 5751
1575 2.4866538327714922 3.8942841315678742 1.2783249499236191 7 12 15 0.40799578521157914 33 3030 34 7628 32 6029
2907 5.2937290318660279 5.5114754767589016 -0.72552215094965145 164 158 144 0.73584687858066067 30 3454 15 2962
1576 2.1629864303309079 3.9920710810485285 1.1775598034264203 4 5 10 0.24132224171590611 33 3103 34 7645 32 6098 36 5669
1578 2.3660445917597586 4.0902317580733678 1.1541984957394555 6 7 11 0.39129633047489137 33 3188 34 7751 31 3890
1583 2.529456968261186 4.0907808723734833 1.1724506673465382 8 9 13 0.63341419217486505 35 8627 34 7779 31 6887 30 4098
1584 2.4892312313517153 4.1152891937334557 1.1511120899202758 6 9 14 0.74487800510675994 33 3212 34 7790 31 3846
7075 2.0475234038865842 0.082962212055799012 4.3167857955287205 42 58 73 0.58598019270646229 3 11496 2 7641
7378 8.9275482767548091 2.2844338423438555 0.13510514534297136 56 46 41 0.92558425604002059 29 1766 17 2694 18 3884
2989 -0.22648555501066756 -0.45728158306620542 3.7562865737000046 54 71 96 2.1904483795449985 29 12768 14 12775 15 12498 13 6172
2268 1.6049763971622333 -2.0428486421686034 5.0020180285059217 58 67 72 1.3488147313323937 32 9028 31 10050 15 13300
1586 1.9437631431299429 4.2417649256183196 0.9861915342703369 32 38 50 0.62600082418414826 33 3320 35 7137 34 7797
3281 6.9664774771574809 5.07533729886977 1.9577123775779337 217 217 217 1.8592836098391359 29 11874 15 11544 6 13286 7 12864 8 10201 16 9469
2470 3.1955999836048976 4.9801141514640319 0.70924189778435665 13 30 46 0.4407168044394642 31 9500 30 9034 29 10793
1591 3.5687173698857166 3.99136980258326 1.3315209153584551 8 13 16 0.81005588532390327 35 7170 34 7856 32 5980 31 3201 39 6571 40 6798
2987 8.3556298346837927 3.5110140774237957 3.0571996350073887 162 160 163 1.4122784433472488 33 7933 14 12681 8 9837 7 9487
1592 1.9944491958558084 4.3359806080079784 0.9602204835593241 5 13 16 0.4522371735673234 33 3392 34 7860 32 6277
1594 3.3375136981903268 4.066596797090015 1.2679104346715384 52 56 63 0.92486907793912432 35 7194 34 7866 39 6568
7093 3.689723864250579 6.9758490489444833 0.58363192134632025 111 111 110 0.47250607066124872 4 14159 2 8017 1 13309
1599 2.7570946364095659 4.3558179915094302 1.037828540698114 8 7 12 0.58469069566907284 33 3393 34 7937 31 3952
6574 6.4348514694019423 1.4970580170087078 4.0410610332057875 169 171 170 0.60293088475497714 5 11141 4 11749 3 9740
7385 5.7513764678434667 0.77275584413695853 4.1791349615455831 171 176 168 0.86262749641538095 4 5829 17 6501 18 8256 19 10852 1 7926 52 6859
15347 3.1837151531208465 3.5975053035380955 1.5108710845367925 25 27 26 0.96025674858240573 62 15988 113 254 26 7465
1600 4.0926661173697871 4.0947318023916246 1.3588226309556306 2 10 27 0.51152478355463538 33 3163 34 7941 32 4812
3069 8.8726536415217918 2.6573003492276128 0.87165796884479974 49 43 43 1.0456357805089591 14 8063 15 636 7 2825 11 8289 6 2075
1602 3.4791054152110772 4.2850341617106702 1.1447570698542557 6 7 11 0.22578547932055434 35 8792 34 7970 31 3481
3067 8.9143398445948066 2.4060328910387772 0.3584224010891453 126 115 97 1.7383214408418166 14 680 30 5545 15 343
15301 -3.6297393131612159 55.107555771539147 -28.92564295602476 188 200 205 0.95777672412684989 64 731 68 720 26 4431
1610 -0.90855973792374733 -1.1917268637828078 4.3845782840041432 108 130 169 0.90394258673637395 33 5188 34 8504
14846 2.1597719424361874 3.37373591569439 1.6869195563537824 184 202 233 0.46547546837640102 87 1375 113 1207 25 8379
1615 -3.7376153518119328 0.52957834280060834 3.024558031166829 0 0 0 1.5294336682170782 33 5415 35 5970
1632 1.3112643537005537 -0.46445878906153093 4.6298194553422336 76 138 205 1.8448584815697029 33 5367 34 9098 31 8001 30 8528 29 12062
1634 0.085584981355484549 0.20885285901363881 4.0660223112092231 44 142 207 1.4579654235357684 33 5455 34 9123 6 10385 15 9179
2454 -0.60270072900242855 -0.19001390838427368 3.5654786150960907 98 113 134 1.608273875996606 31 6035 30 8691 14 9722 28 9063
1639 2.1096213087346678 2.5809263919646139 0.22362982085218872 217 209 195 0.39567344335222066 33 5574 34 9283 32 7951
2971 2.6119212709129616 5.1695419015697617 0.52661188933036085 2 12 23 0.94075810802170745 30 9213 14 10706 15 5209 31 7263 13 7184 12 8100 11 6387 10 4106
1640 5.6881788729491012 0.66608834365200087 4.2502854337459564 145 149 134 1.004334735345412 35 8278 34 9298 31 5803
1642 6.2542632325305849 1.3375320811411153 4.2228809913902801 62 124 179 0.5878641706515324 34 9360 30 1575
1647 2.0058734838446011 3.5468694253784632 1.4386515227295062 39 120 187 0.54936410324437435 33 5729 35 6689 34 9472 32 7175
1648 2.0064629035801675 3.5467584171481796 1.4322495115775193 39 120 187 0.45086416654203987 33 5730 34 9473 32 7176
7139 2.226104462785012 5.4729917314554664 1.3676150429528953 15 130 211 2.5753486253118671 5 14453 2 8655
3053 0.61742193657152578 -1.1728389754187232 4.8701892284807897 20 31 53 1.5395637818887375 30 10917 14 15114
1650 1.6844143668161966 3.754758003391637 1.2647275090911201 42 134 207 0.24955174947093298 33 5771 35 8470 34 9510
2534 3.9060933868246552 7.018552244976501 0.6347685392996506 80 63 47 2.1093557093481587 31 9591 30 9954 14 14188
1655 2.2048463940934528 3.8375841678948919 1.2637727642693097 40 43 48 0.42225922412950573 33 5811 34 9563 32 7245
3051 3.4891510491539153 7.1109154212620469 0.45382842590585809 199 198 178 0.47243846718205712 30 10795 14 15043
1656 2.0360040182095989 3.9301576490813521 1.2340141519152001 11 16 20 0.65344143436376523 33 5849 34 9572 32 7299
1658 -1.0399912767343775 4.8030744094098905 1.3182119400521057 45 101 160 0.54736653387783285 33 7480 34 9603 32 8482
7157 5.9045776430169203 -1.4366033115923558 -0.056848670923381701 154 145 131 1.5669379886004324 5 14463 4 14904 3 12312 2 8750 9 12132 8 15232 7 14695 6 14135 1 14742 52 10470
1663 3.292049864297101 4.0112470321701039 1.3043213786617458 42 45 50 0.73732616486529368 33 3101 34 9680 40 6760
6638 2.1592900564290027 -1.4353489289325265 4.8953962366214299 32 43 49 0.41784458790784262 5 11278 4 13554
1667 3.7896005956008141 3.9605420117394159 1.3587688991117128 54 59 65 0.29779826791138425 33 3062 34 9699 31 3105
6928 6.1125623358658201 1.1771889671725211 4.1754112480874896 159 159 162 0.41160660304303925 4 11756 3 10976 2 7525
1668 3.5853565702339973 4.04363844941106 1.2982290149837261 79 80 82 0.68632948842230146 36 5828 34 9720 39 6602
2327 -0.32065652060685462 -0.4621449489201927 3.7039461248746024 136 150 177 1.0606964591111929 31 2375 30 2415 29 10902
1670 2.024689516139337 4.3727555155494553 0.94517669726116305 6 11 15 0.18323773266472601 33 6006 34 9722 32 7441
2840 2.9831812114237479 5.0573293538860762 0.63562177003044718 2 10 23 0.86528243503548941 29 13116 16 9576 17 15792 28 8527 18 19038
1675 4.1437409913498406 4.191664580766596 1.2689937288906583 64 125 180 0.62594955450420275 33 3253 34 9809 32 4834
2834 2.3678124789429709 -1.3382823558547154 4.9260108401733991 96 115 130 0.90883266809536312 30 9465 29 12977 15 12364 14 12604 16 10058
1677 2.9125786042767858 4.4576737219074127 1.0189204496522719 10 8 13 0.63968619011259986 33 3456 34 9813
1681 2.9535936729373602 4.5102761388426336 0.96351904752647688 19 25 25 1.1572337870017175 36 6018 34 9842 13 3449
1683 2.524040101671686 4.6657222058681977 0.82569892347737017 51 59 69 0.47916018232874591 33 3650 34 9869 31 7152
1685 3.2323394278013278 4.8320991581538131 0.79434369470315858 10 11 15 0.9226201810059268 33 6160 34 9962 32 6399
6938 4.3016602545724787 6.8569871895225036 0.8416010837445187 63 107 162 0.63774225271404916 4 13739 3 11129 2 7658
2920 3.9438745952839702 6.9014808406503612 0.57930928729447151 167 158 147 2.0743767069647823 31 5093 14 6100 8 6886
1691 -1.9451790722909281 -0.53020527413774565 4.1089069875551871 130 149 164 0.75125618200796884 33 6805 34 10179
2914 5.1118097571105423 6.1685784735706441 0.31642129798916624 175 169 156 1.2734651033841318 31 7170 14 4861 13 7019 12 9180
1693 0.88272441706898364 -1.0815929531758528 4.676419340435924 10 15 21 1.1514839080573924 33 5256 34 10205 31 7948
1694 0.85977612351846333 -0.95679232756508126 4.6460657292468595 27 90 143 1.0397354769662424 33 6795 34 10219 31 9125 32 7836
1699 -0.54227386832371638 0.03631757268078338 3.9210992041913117 23 32 39 0.56339834260177035 33 6856 34 10257 31 9229
1710 2.3607973132658149 0.8442933894106629 3.7758941436402309 74 82 82 1.2304817238450299 33 6931 34 10381 14 12765 15 12458 13 8557
6463 2.2847670256155372 0.10194134555364298 4.021397764377272 10 29 85 0.32164069779190896 5 14480 4 14930
2311 -1.5319945027708017 -1.1049354927108503 4.2607456685064413 0 0 0 1.6309096469394491 32 9385 33 8476
1718 3.8955757285535362 2.7213017054721473 2.9803511138970502 83 153 215 0.96306758481440213 36 6737 40 7884
2818 1.5726694890409545 -1.1212239078341648 4.7469648251473915 12 12 24 1.5880905674308348 30 8436 29 12603 14 12671 15 12410 13 5948 12 5060 9 8001 8 9712 7 12763 6 12372 5 13619 28 8563 27 13838
1725 1.9208085733945726 4.0716249718596682 1.0931897748594503 36 45 52 0.85788013657314599 33 7258 34 10656 32 8239
14607 2.5060909861531684 2.5860921975115319 0.1983181747106231 17 24 36 0.43483757874082329 68 1079 109 995 75 689 116 934
1726 2.0715636277887115 4.0677292013311135 1.1287120267863981 6 9 18 0.74781735748397771 33 7254 35 9659 34 10668 32 7346 31 8547
1731 1.991250053930989 4.117739701412706 1.086046444285641 8 13 19 0.4144824161620384 33 7272 34 10692 32 8250
6177 1.4707960764232746 7.7330661983050168 -0.09994811219323893 101 112 118 1.5086179716155219 7 14048 5 13440
3108 2.7150680481290963 4.2970565582601408 1.0874193722059364 6 9 18 0.39902704212171108 14 4912 15 4609 13 3407
2391 0.92714283802854536 0.55987445579138662 3.9859277598673168 14 105 185 0.97517544273771573 31 6096 30 6757 28 8126 27 12909
1734 3.7652191763030745 3.7921922061812459 1.4681216302226807 26 35 42 0.60126431304926531 33 7153 34 10719 32 8099
2904 1.3668744077181456 -1.5609042669745041 4.8755563415441374 55 85 109 1.9573058383989617 29 5924 14 2730 28 7027
1739 3.6527503070155958 3.9324527800334637 1.3557521102603236 9 16 26 1.6325367427173465 33 7195 34 10759 32 8133
2089 4.1736311981300833 4.178529585439386 1.3757144261272458 23 36 52 0.60557320148861415 33 8943 35 11401
3107 3.1199498987470018 4.6316027426611948 0.90945311321996658 7 11 20 1.0194340969484674 14 10234 15 4517 13 6897 12 7886
2898 1.1808627174532511 -4.8025244499250617 6.5784959230970026 118 120 125 1.3121641294115325 30 5566 14 1585 12 1880
1741 3.3165279084575894 4.0372760588305212 1.2776816054779132 41 44 49 1.3569846780506776 33 7227 34 10776 40 7444 42 8623 41 7225
1742 2.560932411381811 4.3608531190311473 1.0965721434897051 130 140 153 1.7899693229056759 33 8051 34 10820 32 8902
6495 6.4503345727935342 3.4482575463130862 -2.8172244000113684 156 147 138 1.1434970042200043 4 861 3 611
7212 2.236531841752921 4.4101691947234611 0.94740136539001785 4 14 23 0.49582480789482619 29 10976 16 7728 17 13640 28 7031 18 16678 27 9858 19 19816 27 11574 20 5858
1746 3.4336926819493723 4.2118966499730419 1.1762414414774642 7 11 14 0.23085479764611924 33 7303 34 10845 32 7293
1747 3.4360719470165906 4.2138325626410742 1.1898463852090528 7 11 14 0.59928393362550925 33 7304 34 10846 32 7292 35 9799 39 8128 40 7502 41 7903
1749 2.6678871549269623 4.4704926559876368 0.96264327520736248 7 6 12 0.40024335548617956 33 7409 34 10877 31 8578
7002 1.9407338169505925 1.8272150135683736 0.6070259882529675 17 15 18 0.50159142646351862 4 14520 3 12052
7211 3.9822475499391388 6.9678216423581496 0.57551064609516012 227 218 205 1.2356424522064808 7 13977 16 7693 28 4692
3124 1.7962559760833352 4.4199380477588228 1.3350159992591877 10 7 26 0.90031502013330034 14 13238 15 5464 13 8959
2471 2.8817471678288609 4.7435132345948823 0.8101940115696552 33 43 59 0.74965600502061591 31 9497 30 9038 29 10848 14 13079 15 9471 13 7001 12 7963 7 5193 6 4790 17 8182 28 6853 18 9628
1750 2.4134259962329172 4.5439448417411308 0.89171753846106361 7 8 13 0.79785192360002644 33 7439 34 10885 31 8659 32 8361 30 9092 14 10480 15 9617 13 7035
2984 2.0555295491694983 2.5486784861349885 0.21123733779964429 22 28 40 1.8595654738831324 30 8649 14 12576 15 11333 16 8813
2105 3.3591724708218864 3.5155032979034213 1.568357126102063 92 102 112 1.0699855445289852 34 9542 37 9264 31 2971
3123 3.4473431171266009 6.5500390291337212 -0.55820927145643018 151 144 136 0.18770288634669541 14 5958 15 5358
2978 2.6906001732241998 7.3450292330041851 0.27275244233636048 10 68 128 1.6291592915358404 29 7499 14 11615 13 9312
1757 3.1018077389258139 4.4732880916293851 0.98939683307782 5 9 12 1.3913990961645843 35 9869 34 10928 31 8481 14 10166 30 7326 15 4422
1758 3.7145196638885523 4.3699031754993172 1.1101929886114887 38 41 46 2.2392475744590574 36 7103 34 10934 31 3437
1765 3.371908368992707 4.6393313240909793 0.92894780973418034 6 10 11 0.66253531960983159 33 7466 34 10994 31 8496 30 7300
2423 5.5471770958119144 -0.2849527221866574 2.7309238073372528 220 214 198 1.6138110251288782 31 7772 30 8234 13 5267 15 7578
1766 6.8882575435793525 5.0466919593461883 1.8672761922534984 127 122 108 2.2609400347281303 34 11061 31 8247
2936 1.6190503419137421 -3.8982421388584854 6.3877096669928015 41 72 119 0.76727317979568266 14 8847 15 8123
1771 0.18889651323250026 -0.67248701170678438 3.875680131783608 127 137 146 0.24935365645261487 39 6129 27 14355
2930 8.631374845648212 2.1247753455741973 -0.40105368708535172 146 131 110 3.0161973731346787 31 7740 14 7285
1773 -1.2624161789663242 -0.11161914848274815 4.1060330804987828 31 101 171 1.0176997106595174 33 7781 34 11169 32 8665
1774 0.60799373492247943 -0.3382236796110582 4.3487689760129005 37 116 175 0.79556675237386454 33 7774 34 11188 32 8640
6527 2.9461153177827497 4.4919033232203436 0.97510307521154549 71 75 78 0.27547134479519253 6 4638 4 6706 3 5867
15168 -9.1080784202020801 28.033996445007464 -12.390246478919773 174 155 150 1.3605428365745684 25 1384 62 13982 60 4819
1779 1.2951371376049143 -0.51298227649963779 4.6195093418663262 27 34 57 1.627123145884642 33 7768 34 11204 32 8635 31 9751 30 10068 29 13297 28 9240 27 14127
1781 5.5178350892558221 -0.22753939733909148 3.1732957612911785 209 200 177 0.6708563811609598 35 10128 34 11210
7034 2.5489367845955426 3.2369802248608592 -0.25045989185054912 54 55 52 1.4984862428903822 4 15009 3 12409
2375 1.682476432090116 -1.0033023286154863 4.6920615875894276 15 20 44 1.8564656104444734 31 2188 30 6021 13 1480 12 2237 9 3763 8 9724
1782 1.9107324628560893 2.1955356006605236 0.1666054601935166 63 66 71 0.61192858172357667 33 6920 32 7894
1787 -1.8264962475720825 3.0806849702400805 2.1959928339410482 35 55 97 0.59368337128513771 33 7903 34 11288 32 8859
2882 2.0302210343100202 4.0909989743886763 1.1075727184144741 3 10 19 1.2457735303463751 32 7357 30 9047 29 10981 35 9669 36 6924 34 10681 17 13686
1789 -2.3737747612786921 3.3545598370921459 1.8850663273126058 112 163 216 1.3505632247795418 33 7925 34 11290 32 8899
1790 2.828244454321784 2.8511286332195085 -0.10397498188174023 223 227 226 0.58408930445341889 33 7872 34 11296 32 9166
15027 2.8621100054694404 4.6814692007536447 0.84619819661618412 77 81 86 0.33685248283565494 72 558 113 206 25 6112 26 6467
1792 -0.8088188880619519 3.5730179070066521 2.0688017554161675 9 24 65 0.88658145523567156 33 7938 34 11315 32 8882
2749 -0.14914994094256109 -0.54494134824021023 3.8373089684868118 56 75 108 0.52400014786547855 29 10827 15 3699 28 8187
1794 -1.5455115550582157 3.7981544974389139 1.8467526833722743 134 157 191 1.5230366468298662 33 7961 34 11320 32 9247
2230 3.7925030961936574 4.3697834858980569 1.1159434160985164 73 79 93 0.50799147563823022 32 8875 31 9388 40 8171
1799 2.6448355355981548 3.5994779543796875 1.4539233960675102 31 31 40 1.3864045875366722 33 7940 34 11377 32 8812 31 9369 30 9755 29 12717 14 14418 15 12535 12 10170 16 9566 17 15316 28 7912 19 19622 20 5794
2747 2.8180584845022434 4.4307186322364807 0.99823520789603437 0 6 12 0.48242891441959901 30 8969 29 10803 15 9371 14 10260 16 7516 17 13445 28 6854 18 9674
1800 1.8886610052474537 4.0254335622151727 1.1150339339999804 44 51 61 0.79819011481136426 33 7992 34 11396 32 8886
14981 3.1293757007776182 3.6256618209529767 0.33706934167718539 154 159 154 1.1074321860764194 79 1126 64 508 105 754 94 475 68 960 98 504 94 77 83 1061 90 656 109 996 75 687 116 813 113 517 72 525 102 810 79 1323 105 936 47 8919
1802 2.5104510644608617 4.0265698263719347 1.2147531898362771 35 42 50 1.5311180937029296 33 7990 34 11421
14526 5.8121871064754576 5.7438601757531398 1.3533486384534519 138 141 138 0.59368104870001925 105 964 115 820 109 887 116 830
1807 3.4183070468211083 4.2745667604893764 1.1725244616792865 42 45 50 0.19509180268080117 35 9809 34 11488
1808 2.7799369894967474 4.4293366560298377 0.99452804403908468 46 53 61 0.43600419188258649 33 7386 34 11490 31 9462 30 8978 29 10818 13 8846 12 9023
6787 2.3815111695868634 6.9144294074178978 4.2921734429872691 1 9 35 0.54514675375642652 8 15215 4 14749
2701 6.909313056438859 1.9409957826832838 3.8908873716132062 103 108 112 0.89912546785036884 37 12119 15 2617
1810 2.9864342624475682 4.5176883084599018 0.96713485314173486 49 53 57 1.7138965367993375 33 8076 34 11518 32 8317 31 9460 14 13028 13 8839 12 9021 10 7950 9 10337 8 10420 7 5041 6 4625
2182 2.6803050728721898 3.830689990811587 1.3355754159881787 8 15 23 0.54025129471312083 32 7204 31 8363 30 7213 29 10720 14 10069 16 7476
1815 0.41617009019398743 -2.095216214415109 5.4109059408421025 56 125 190 1.9370535517143102 33 8196 31 10357 30 10713
2699 7.2186077157380861 2.3958869554674829 3.6152528957887449 197 196 197 1.6737521292368971 31 2346 29 4845 15 2642 13 8501 31 8008 11 7021 10 7732 9 3988 28 3923 19 10200 20 5334 22 21512 86 92 55 18875
1816 -0.37005697603601378 -0.69340935448695507 3.8500474062855488 180 188 191 1.0824656928582286 33 7728 34 11631 32 8617
1818 -1.0855178089551027 -0.07776643477445018 3.9642059782037622 22 38 61 1.9195598509334966 33 8232 34 11665 32 9113 31 10168
6805 7.0123191691964966 2.9384461100818089 -2.4833223619511577 153 141 127 1.6254635329326608 4 14867 3 12260 2 8689 53 12722 55 20551 52 10316
1823 0.94893630306794474 -0.69116657116900071 4.7130227533954701 48 126 192 2.3006904102648584 34 11680 31 10107 33 7759 40 7734
6286 5.6032826350755212 4.1598691019970664 -3.2173933855426302 171 163 144 1.426344582836611 6 118 7 63 5 367
1824 0.51550677765771147 -0.41760246380738003 4.4335663903108138 19 25 40 1.5485386101643139 33 7766 34 11682 13 9611 12 8718 32 8638
2508 1.7002092993325666 -0.88451599672811476 4.8440278497318694 6 29 63 0.87828958261610468 31 9113 30 9515 29 10280
1826 3.2386411076548351 -0.42304135733619258 4.0725986050664265 61 112 164 0.374320540723865 33 7754 34 11691
3521 0.48943378175333285 -0.32477608263163282 4.4114519849591058 8 21 40 1.7801794148276107 29 13715 15 13541 28 9623
1831 3.4776061372101372 0.02053286808106634 5.1451806750965208 13 31 45 0.83279309707817717 33 8247 34 11731 32 9107
2134 0.79696039609496139 0.39173056238585502 4.0172022694857885 3 46 92 1.7503527897977904 32 5661 31 6078 30 8678
2651 3.6525585355723589 3.8758388447818946 1.4066966935382568 11 14 21 1.4089744622507887 32 3460 37 5406 39 5478
1832 2.0797074961016264 2.5103370812354631 0.19160012571698543 11 18 28 0.46389167657581243 33 8277 34 11735
1834 7.3367487442977186 2.3341728319451933 3.6106960186874053 26 44 58 1.6274872299266889 33 8287 34 11777 31 9754
1839 3.3806950401956626 4.092204819803575 1.23598059193103 40 45 49 0.70683905831910598 33 8338 34 11822 32 8856
1840 2.5747130553460513 4.3965986473957699 1.0637939609423215 11 12 16 1.7317425630486942 33 8355 34 11828 32 9236
7634 0.80972079523241569 0.49975382886567626 3.9420954493462794 5 16 39 1.2970432820948703 15 13172 18 19843 17 16547
2733 2.4534577772164363 -1.3693193896317957 4.9580870548575176 14 25 37 1.7398898511443406 30 5826 29 9952 28 7874
1842 2.6040326107222072 4.4361365620774809 1.0727890037437908 38 45 51 0.48973342339385778 33 8059 34 11833
3537 1.4546161296255187 -1.3125060786444267 5.0058076480463223 58 45 62 2.0224665369149073 14 15156 15 13641 13 10899
2214 8.0014463174049197 2.9790069193390121 3.3581816220060121 67 75 87 1.4032807624523991 33 7898 31 9163
1847 1.0833561636767335 -2.2140729681902753 5.3953326291898609 75 124 175 1.3855938174021816 33 8189 34 11928
3546 8.3311699632715612 3.4436597645838751 3.1862141592383226 88 104 124 1.165777358284743 31 9181 14 12685 15 11383 30 9525 29 11798 13 8533 28 6440 18 15280
2731 5.5344033277866709 0.10757426228683394 4.8578791594323523 58 122 192 2.0209305733926577 34 10401 29 9688 28 4142
1848 -0.57536220941515837 -0.15732584214995379 3.6310218088382413 102 119 135 1.1338277663713594 33 8491 31 10545 30 10751
1850 -1.1566232951669726 -0.071634348256224847 3.8722414251295976 70 140 210 1.595932265448156 33 8498 34 11946 32 9112
6837 5.4530612977050845 4.8659850106881644 -1.9628985532874734 113 100 83 1.8610328919761308 5 13830 3 10747 17 15645
1855 2.0619991588861928 2.1074206260857409 0.29840569933508676 54 58 57 1.0681191581163145 33 8246 34 11973
6318 2.7613730893264008 3.1730432552935595 1.7101215274312176 63 68 73 0.88780311781745513 6 4112 5 5654 4 6463 3 5682
7641 5.3081714349439677 6.3209806867868048 1.1135704340427239 145 139 127 0.96432159870188627 16 10430 17 16583 18 19897 27 14524 28 9599 19 22538
1856 1.5266811178868105 2.4083768897318212 0.43084198423300551 58 146 217 0.25045096789179422 36 8236 34 11987
2813 7.4104402186357694 2.5363911231458878 3.5370498857385182 190 186 176 0.83002801018661487 30 10038 29 12505 5 13581 4 14034 3 11424 28 8390 2 7922
1858 1.5314383820265594 3.92519956614378 1.1510207851197534 17 31 44 0.92098005646906089 33 8569 34 12033
2294 7.3745120712877874 2.1282385072097645 3.8554699050272276 0 0 0 0.62224312507813395 32 9841 33 8902
1863 1.0140981166879748 -1.3965930428582813 4.9155673537175586 58 132 198 1.6324593360665043 33 8479 34 12115 14 14643
2811 8.0072165699145224 3.1158900044053048 3.1844471045115701 50 60 70 2.3070330694017325 30 10046 29 12497 5 13568 2 7905 27 12520 28 7747 19 21596 28 8384 1 13705
1864 0.52651742726772577 -0.598526077884033 4.5223710826150043 24 34 46 1.8246629618016685 33 8676 34 12125 32 9568 31 10532 30 10737 14 14860 15 13462 13 10598 29 13709
15045 2.9333356099249817 5.148796201338377 0.57801077576135018 33 32 37 1.2377141894387822 24 9988 88 528 25 7048
1866 0.63789607792668168 -0.49166187199157019 4.4965443610047089 44 120 181 1.913484456241261 33 8677 34 12128 32 9573
1888 7.1897083128572907 4.966860209461597 2.1831878308521642 126 123 111 1.0187851294255781 33 8721 32 9616
2717 -0.35084553185782308 -0.48261125741031802 3.7529477906107407 184 202 217 1.8166888324006532 32 889 29 7105 28 5357
1890 -0.054535039974074037 -0.60914821639971417 3.8616145842133354 158 166 169 2.0133881774450155 33 8832 31 10692 30 10921
2198 2.4830843593121585 4.5580013595485669 0.88768412280120312 54 60 72 0.27581697487792917 33 6071 31 8652 13 7024 12 7961 9 5049 8 5930
1895 6.5150297425830814 5.4290856309852247 1.8126447387715343 166 167 162 1.6618391908221981 33 8877 32 9806 31 10649 30 10765 29 13603 15 13468 16 10363
2715 2.9661575103155515 4.7313020260630259 0.82843193630071443 72 81 90 0.7676901979663272 34 10999 29 7004 15 4700 14 5038 13 3579
1896 -0.59410972676776963 0.10961061152886827 3.9622285757752609 13 21 39 1.5267397095361244 33 8892 34 12340 28 9749 32 9833
1898 3.5326522293891944 -0.52964915910982546 4.9299765469767731 75 140 196 2.0968671324808716 33 8837 34 12344 32 9691
1903 -2.848177641453228 0.35880505037428451 3.4332880614255816 22 24 37 0.049215060453775245 34 12390 32 9926
1904 -2.3400998583075285 1.4101737822594487 2.9771245569928118 27 33 45 2.0037524910833491 34 12408 32 9954
6883 5.5716700731653734 -1.4461409766645814 0.5165012062724168 188 193 196 1.213262584513221 4 13021 5 8743 3 7935 2 4947
2278 6.4644972084158221 1.6253099292689888 4.0143071223493454 64 131 206 1.8951249808487154 31 10374 30 10343 29 13240 14 14631 12 10418 11 8731 10 9426 8 14615 7 14126 6 13574 5 13862 4 14544 3 11912 2 8376 28 8858 18 19485 27 14060 19 22180 20 8194 1 14273 22 29368 21 19944 23 16195 55 20402 52 10065
1911 2.4102376898761717 2.7077008446029938 0.059866963166070569 71 82 86 1.4283268458806002 33 2597 35 8214 36 5180 34 9310 37 10688 38 1543
1912 -0.85681353794626725 0.67561327790346648 3.2873082335526558 13 15 20 1.6479268822876589 33 5479 34 5969 37 3148 38 2452 35 6245 31 8198 30 9741 29 13177
1914 7.4780216654510152 4.5227912683061762 2.1869872986401493 166 162 145 0.41588323143981132 33 3341 32 7156
6901 1.7844561547769644 4.0183985220314957 1.1076613769375214 10 10 20 1.7363607665644951 4 13696 3 10102 2 7625
1923 1.9832799205419482 4.3153647884717214 0.96871380995976064 38 50 62 0.4348085650127313 33 3374 32 4986 29 7269
6672 1.5107270990556976 4.1855254912226485 1.9816367355528977 0 67 132 1.7325473895577541 5 13383 4 13829 2 7739 19 20222 1 12802
14858 1.3311515948494461 4.6573390171813722 1.6586515002534206 56 142 221 1.0859649683035533 64 887 68 892 90 559 116 494 113 355 21 19682 22 29070 23 16210 63 614 93 599 70 700 66 295 91 732 107 267 111 178 111 376 117 779 117 891 110 464 99 506 115 209 115 504 115 910 69 509 79 1406 64 1132 105 1024 98 965 109 1024 75 660 116 719 72 887 102 925
1925 -0.83343525400034024 -3.5983325871101006 5.892137776764292 0 47 104 2.0577521032806891 33 176 32 5311 31 5683
1926 1.4396132680594864 -2.1793376091426291 5.3576320985014094 31 39 56 2.0161402293468322 34 4833 32 5391 31 7852 30 9455 29 12556 14 13824 28 8948
2071 3.7692688616936723 3.9512319809637599 1.3486958104618594 75 82 85 1.7655876039902787 33 8330 35 10968 34 12052 32 9206 37 13965 36 8324 31 9859
1934 2.538879999770046 3.8722982660066023 1.2961101777353687 14 18 29 0.60874967535169933 35 6944 32 6016 31 3571 44 7785
1939 2.1864259739033436 4.2732390839310437 1.0151274471159948 3 7 16 0.10705057325292762 34 7853 32 6221
1941 1.9332660877255758 4.2612325156243713 0.99267231324913252 8 16 27 0.55097765356111239 33 3331 32 6245 30 4608 12 3703
1942 2.9544537017986441 4.547715236857246 0.93069363271895045 40 47 57 0.93010117728476527 34 8054 35 8885 32 6284
2151 6.2716831440724379 5.5462861584638397 1.5834630527300644 119 106 90 1.5767956827245944 31 6619 30 3480 14 9923 15 3811 13 6752 12 9031 9 8523 32 7455 8 10416
2664 -22.580757303643622 -1.6395011209275829 7.674082352330112 70 54 35 0.79401971642883773 38 7724 40 7593
1947 4.7625845310920347 6.4117086518061717 1.0608713046110365 77 121 148 0.69310089865654845 33 4526 32 6587 31 7234
1949 0.70616691503982798 -0.53847951051502374 4.5631598889291407 41 109 175 1.3530971434152115 33 5352 32 6845 13 8544
1950 0.8846048266804879 -0.23423623174436078 4.3957964401269196 10 47 86 1.41818978348265 33 5388 32 6853 31 8045 30 9585
2055 0.11047418079108134 -3.3256928295276214 5.9625810064278859 12 16 28 1.0572029552693725 33 8818 31 10675 30 10907
2568 -0.023375430239135336 0.23197247808612159 4.3137518750264858 18 34 60 0.88903372402458991 31 10165 15 13365
1979 2.4991142173286005 4.0548714362546079 1.1867558926541639 9 13 22 0.99514731490190877 34 10713 32 8199 14 10215
2562 0.48786340991669325 -0.66662347258767041 4.5848036750079082 10 14 26 1.650968122944841 30 10375 29 13331 14 14663 15 13341 13 10386 12 10084 9 11528 8 14873 7 14386
1981 2.6117708761213501 4.188490538907141 1.1211188229078064 9 9 14 0.55541197462388603 33 7294 35 9743 32 8229
14351 1.4871859790289363 2.2267216456810068 0.63707799992864866 138 155 183 0.64225867985109597 98 1094 83 1148 75 763
1982 1.9187594367809773 4.0748533449214337 1.1118952054765898 29 37 50 0.60485117674654221 33 7259 32 8240 31 8582
1987 3.5486282520562158 4.602388475937448 1.0256373881082987 31 40 49 2.684978052771176 33 6075 32 8297
6736 0.17768082301362634 1.8491130044629462 3.1404299310557491 1 63 133 0.16349475666268828 5 13745 4 14440 3 11810
3364 3.2968843974646749 0.99498321182424787 3.8406348822845198 36 53 85 1.3131025817204451 14 12723 15 12438 13 6196
1990 2.8003525172059627 4.5506694072098925 0.92504260298676144 9 10 14 0.74121059573293668 33 7442 37 13122 38 7441 32 8335 31 8586 30 8999 29 10828 28 6871 17 13457 18 16420 19 19553 20 5711 21 17701 22 21751 108 114
2135 8.3556787995716011 4.0833074252946844 2.830123865137292 41 86 126 0.51856232388215706 33 7193 31 6092
2648 -5.6196727575832401 -1.8028979827308995 3.3982286183913049 184 187 180 1.2012438452883685 36 6345 39 4693 37 7756 40 2598
2345 5.2095583653533915 6.0487562597865248 0.22438202858212453 143 138 126 0.48827210927498621 31 7123 30 4025
1995 4.7293267189613974 6.4396851959518537 1.0627737266510902 12 64 107 1.689839607693308 33 7575 32 8497 31 8738 30 7582
3363 0.40842348924845384 -1.7790579316234176 5.0664732171439484 16 27 55 1.8479770799888151 14 12692 15 12434 13 5969
1997 0.83425299947527287 -2.6431686844298641 5.7408067420012427 14 23 52 1.8130103293410453 33 7666 32 8562 31 9682 30 10330
14270 2.8753432039649507 3.0266071433485462 -0.2485435164176884 62 80 86 0.92608916795183727 68 98 83 494 90 54 109 459
2063 -0.72721709205947438 0.36271776885211265 3.9197728552599864 47 139 214 2.4448909614602021 31 10757 30 10959 40 8498 41 8915
1998 5.6584510116767301 0.18195819078367204 4.2803588701650677 214 211 194 0.59474385072727376 33 6894 32 8620 34 10396
6239 2.2055343896382444 5.3350648429656378 1.3587412951978346 2 17 38 1.0028882713218426 6 14115 5 14383 4 14832 3 12219 2 8654
7468 1.7214024242146373 3.9412738516971544 1.1543454667206807 6 13 29 0.69029946637252093 29 11060 17 13763 28 7173
2003 7.0913877856561607 2.0720125262249982 3.8862160193763384 30 107 175 1.2084346394259831 33 8284 31 9143 30 8443 34 11772
2005 7.6094081788081507 2.7434978979127917 3.4705864968564297 46 85 126 1.6540870473164762 34 11388 33 7044 30 6078 29 9664
7467 1.851092146446677 4.1432227008689191 1.0511762094736232 11 18 32 0.56542290376720739 16 7846 29 12277 17 13737 28 7141 18 16883 27 11680 19 20004 20 6017
2006 7.8877762043432256 3.0866639695858415 3.3088885593849895 29 76 128 1.450213868032544 32 8755 31 8050 29 4792 30 8475
2728 5.388018355790658 -0.057205602058839573 4.7498616050368607 112 123 141 1.7914430999771809 29 9667 5 11102 4 11715 3 9729 2 6532 16 6646 17 12728 28 6581 18 18453 27 11281 1 13238
2361 1.4210960842230727 -5.0843299469896657 6.6961371638729963 147 157 166 1.8172188129875277 31 5588 30 5561 14 8537
3379 2.2053709686193965 3.4495956296136159 1.516629016007355 40 53 73 0.75181457578273214 14 14016 15 12561 13 9698 12 9681
2722 1.6773972224284113 3.8240513111813121 1.2160619398841992 1 9 26 0.50957372660235689 30 4415 31 4008 29 7285
2013 -0.73967803086224715 -2.9627668907033589 5.740763597968372 26 109 185 0.70520843757644591 35 10592 31 10346
2079 7.1084492267159325 2.1439360202918909 3.8224601148612578 33 107 179 1.0057929585648373 33 7011 31 7998 30 8445 29 9676 13 6062 10 5938 28 6511
6030 5.7091965009323937 4.0348983715952187 -3.2039585321345148 137 128 121 1.5418170050991238 7 6983 6 6970 5 355 4 728 3 526
2014 4.1014623318392829 -1.2501361133165243 5.1083824441853514 199 207 218 0.30492118986203348 36 8242 32 9050
2019 7.4665665648365573 2.5313817469200246 3.6041982280465188 188 182 166 0.0066070410130901445 33 8294 31 9766
6768 5.5106023401978375 -0.93027017816786228 1.5622409555744876 154 149 136 1.0672036278927428 5 14197 4 14663 3 12044 2 8487 19 22511
2022 8.1873824296867106 3.3286974673622938 3.0722723294892349 67 70 76 1.8275951910610508 33 8307 32 9180 30 9516 29 11792 14 14326 9 11516 8 14617 7 14120 5 13040 4 13494 13 10055 2 6449 3 9670 28 7742
2167 4.293982623381785 -0.35937884672252973 4.9202316913288531 76 139 208 1.7463947453461033 37 10881 31 7893
2674 3.3391570465555764 3.9556792083242951 1.3275497539025751 12 13 18 0.52096605263031992 37 13963 39 8987
2029 3.8832495619817395 6.2612502212073879 1.0702677729333265 0 8 25 1.2660022746258726 33 8428 32 9313 31 9985
2095 6.638505978746112 1.6485948148739211 3.8077836033145052 199 201 187 0.99616134965032588 38 5803 31 2251
2030 1.0819740503645052 -5.2246516615511345 6.717763130178847 34 38 41 1.8234599831182432 32 9322 30 10682 14 14951 13 10546 11 8314 10 9018 9 11749 8 14843 12 10338
6271 1.5063844900481593 4.2185125009712916 1.2804086172276399 21 10 26 1.3199712050587169 7 5855 6 5621 5 7197 4 7892 3 6816
14912 2.8493264763192165 3.4088726685022501 2.0261238086837876 13 26 31 0.40259639622243715 105 1145 72 1050 94 1162 102 1225
2035 -1.2820706355390423 0.038334178342523312 3.6022461886253634 56 133 205 1.3749201214489939 33 8229 31 10174
2037 7.7988290523651917 2.6375260819832915 3.7715172983789147 177 174 157 2.2621458390426077 33 8535 34 12167 32 9430
6778 2.8402700223979105 0.61390501129164698 3.9322101777536398 50 66 84 1.2180778189632617 5 14250 4 14704 3 11924
2038 8.1852731704313992 2.9881139440387692 3.6821459601534507 174 167 151 1.2563655912805183 33 8539 32 9433
2119 1.1668158586002166 -4.7385258429334511 6.4353445026842229 167 174 167 1.4040248286026793 35 4594 31 5602 30 8241
2045 0.50376219372400854 -0.29263856998182169 4.3702334601955464 9 28 56 0.48148263490519871 31 10538 13 10754 12 10650 11 8719
2111 1.9374488818817641 3.9907851068238402 1.1537611824367309 4 8 17 0.37514619986937525 33 3105 31 4042 12 3473
4825 0.75058583284401237 -1.0020589534454207 4.6426819617645023 5 16 28 1.4117342108363156 11 7796 10 8507 9 11511 8 14622
6062 2.5201752170119858 3.7801894753598351 1.3435043095291799 57 60 65 0.69600833785230276 7 10068 6 9907 5 6008 4 6739 3 5908
14415 2.817225649826498 3.7510938075771487 1.3813297339968758 232 246 255 0.18523209462575543 68 282 90 508 109 568
2046 1.7098939025606426 2.2325720201280066 0.43141319990382743 10 16 28 2.030873393829101 34 12146 32 9598 31 10404
2992 2.7801265050344814 3.8972625937472944 1.2999466851854005 39 49 65 1.1503803692637744 30 8869 14 12938 15 11715 13 8757 12 7631 11 5990
2049 0.60251468721611923 -2.3580732492212375 5.5655177800797624 16 31 50 0.22571562696620273 35 11056 31 10612
2051 0.97619621185677896 -1.9188581938423523 5.247230854046582 14 32 56 2.1987273815387813 32 9674 31 10614 30 10862 14 15072 15 13530 13 10730 12 10617
3511 2.1303095124018148 5.0521043800480649 1.5193941236652666 2 17 43 2.4976844066328487 14 15041 15 13500 9 12116 8 15288
2052 7.4901797323824999 4.7308722054873762 2.4598108374384311 17 73 124 1.9164621970906233 33 8806 32 9726 31 10427
2996 2.2516207599725795 5.1726648204369674 0.93453436772557619 7 15 33 0.23980783160496716 30 7858 13 9856
2053 2.4153195314945788 4.7632579165483486 0.79332065212636182 215 217 219 1.1173109660292644 36 8748 32 9740
3505 -0.22910849288868387 -0.50851095990947526 3.7727026847814278 26 43 63 1.8381691745525879 15 13465 13 10379 14 14855
2054 2.4153195314945788 4.7632579165483486 0.79332065212636182 215 217 219 1.1173109660292644 36 8749 32 9741
3000 1.3503466899377123 6.7278596450601915 0.50766794018833994 1 67 141 1.4579941601299515 14 13630 15 12180 8 14517 7 13576 6 13063 5 12505 4 8845 3 7489 16 8122 17 9329 28 7383
2057 -0.70262944993023591 0.60974321389622599 3.8765034368714777 13 75 125 1.0475362716044891 33 8845 32 9785 31 10707 30 10934
4026 2.0760287523501892 3.3199272912927538 1.5246334811809525 119 128 135 0.75617205162518319 13 2978 12 2984 11 4071 10 2667 9 4490
2059 7.5090680255867008 2.5983765415912141 3.4749296787848722 180 175 155 2.0033932518377178 33 8866 34 12360 30 10716 29 13575 28 9488 27 14268 19 22452 71 930 65 815 77 565
3519 2.105534709120064 2.5869754166417174 0.21515731144124364 137 138 130 1.4303574575833389 13 10726 16 10419 15 13524 17 16574 18 19797
3004 5.3273244970009586 5.3700848766358318 -1.1077758267463735 96 87 72 1.1714702031587787 29 11833 14 13852
3513 2.8146910291787548 -0.34103621771136206 2.2861426973154622 188 199 203 1.2623639298526939 14 15052 14 15100 7 14624 6 14045
2062 1.339944935484932 -2.2051561257691921 5.1290610363742593 29 40 55 0.31782091299357373 33 8884 31 10736
3970 -1.2391745718043508 1.2159978138303935 3.3117159909290188 6 94 165 1.9705329213338869 14 15034 13 10639 12 10465 11 7917
2067 -0.83018374688035823 -3.3144946894314251 5.7309397148176524 39 117 199 0.54488217564422148 35 11320 32 9865
3463 0.80186571223689618 0.54433447703292803 3.7332743186142041 67 141 214 0.8141342008346758 14 14681 12 10436
2068 3.9105119612341857 0.35322389598884341 4.0890551612671011 81 145 207 1.3697860284397234 33 8957 32 9911
2948 3.1449022983364046 3.2985706781338973 1.6861924345597823 59 63 68 1.128131470350269 29 12066 14 9779 15 11608 16 9016 17 15263 28 7852 18 18536
2069 -0.64262167798573 -0.51763382739168895 3.7856536460683445 227 234 230 0.29781183104903652 33 8966 31 10828
3457 1.3143620940944107 -0.54669082323945506 4.6509565646157336 5 26 65 0.3688330058064706 14 14347 15 13150 13 10063
2070 -1.6937436618605457 1.1970552585740715 3.051684283367214 226 233 239 0.19834471712632332 36 8830 32 9973
2952 2.8458123501465225 4.4119090240815328 1.0071043074386796 39 53 66 0.26631317165516794 31 8520 14 10236 15 4558
2073 3.7208261244657423 3.9249288310426547 1.3651481786728437 32 37 42 1.7152200294597004 33 7192 32 8127 37 12957 38 6805 35 10333
2074 2.3370193437282878 4.6046025642227368 0.84022160485270336 6 11 17 0.62652697457421258 33 3614 35 8847 34 9833 32 6386 37 11497 38 6167 36 6011 29 7196
5525 6.3106210410980461 1.4686516758268942 4.0982616672291927 50 110 180 0.83389455391621203 9 11084 8 14189 7 13776 6 13238 5 13588 4 14041 3 11431
3978 4.0894693142466352 4.1285892319039927 1.289379420281519 11 18 34 1.1768592904673316 14 15006 13 10763 12 10819 9 11788
2075 2.4757642604279897 3.9168424347743405 1.2596963309164946 38 43 49 0.59871755516871539 33 7194 34 10643 32 7254 37 12273 38 5975 35 9636 36 6881
3471 -1.2160536935089583 1.632611818646871 3.0593513509996018 8 34 75 2.2585062565115215 14 14485 15 13229 13 9766 12 8923
2076 2.0255704280958833 4.3707722506534843 0.9379873124068826 7 12 16 0.64481909201475041 33 6007 34 9721 32 7442 35 8714 36 5860
2956 1.8525407718054403 3.8083984927082484 1.2556835161675983 11 20 43 0.76635843139479187 30 9000 14 10351 15 9546
2077 -2.145509445057264 1.4508764296834722 3.1013805616903394 44 47 59 1.3669094490730178 35 6380 32 5792 36 5292
2078 2.3205429931573258 3.7021665320350161 1.3782047545122771 14 21 33 1.8811623805460342 33 7138 37 12883 34 10572 32 8139 35 9581 36 6814
2896 1.0614346222883848 -5.2989836791215099 6.9318113515872053 73 72 91 0.71199877081921326 31 7768 14 1548
2081 -1.4476841075901767 -2.0118111649551289 4.2251509578468092 16 42 84 0.22175718142794915 33 7643 32 9026
5827 3.9138516921012578 6.9516823971257606 0.64226877920468495 148 143 129 1.1079577247683716 8 14471 7 13330 6 12834 4 12490 28 4734 17 8368 18 9725
3783 1.9852681944223434 0.14452899767869742 4.097148978029642 62 79 97 0.86355828595170403 14 13902 15 12444 13 8523
2085 -0.64979027921542987 -2.4687424592440119 5.1110451690671086 14 41 70 2.2730648653288767 33 8645 32 9546
3409 2.6134910073786428 0.89520429699209758 3.8005003971822178 15 22 41 1.0093873323321596 14 13912 15 12853 16 10079 18 19696 27 14089 19 22478 20 8314
2086 -0.86133678678205827 -2.8664089575971077 5.6253223009854088 14 41 70 0.26747606669530993 33 8646 31 10511
3791 -0.85309524300553341 0.080265551865340498 3.9774857625934961 59 83 109 1.3604784836290988 14 13998 13 8647 12 7334
2908 0.47431117769218822 -0.044788110532973699 4.2601181593090836 45 124 199 1.2662135394644485 30 6662 14 3990 15 4005
2093 5.3600692428998888 -0.1418525885776443 4.6171864595937073 108 114 128 1.4079137638620101 33 2219 31 2088 12 5008 10 1849
3784 0.84872305860111674 -0.48349725683757611 4.5265651419478212 36 102 163 0.66905561525610846 13 8542 12 8701 9 8124
3417 0.68301602001894468 -0.20497324270602857 4.273103618733809 21 35 68 2.5609628475084536 14 13932 15 12879 13 9614 12 8728
2094 5.4044589863762749 -0.0033338999506183336 4.7945279025438632 164 177 201 1.7915637963561806 12 7116 11 6913 10 7663 9 7988 7 12645 6 9219 5 11138 4 11753 18 18455 17 15122 31 2134
2097 7.0485773678484946 2.0669790647707371 3.6773950958010091 40 54 59 0.068477605917646275 37 12128 31 2301
3495 -0.72391709436619212 0.71988818569561075 3.6642573431946208 12 34 82 1.7855397189784052 14 14708 15 13373 13 10148 12 9654 11 7894
2100 0.91364737105767824 -0.20174485633425049 4.4044690443540615 55 112 178 0.99897184741620249 33 2138 31 2408 30 6499
3799 -1.1080946287711084 0.40716164941423999 3.9424472268525359 19 82 151 2.53904634419075 14 14053 13 8702 12 8818
2101 8.0313124529433164 3.2510380897311784 3.2454501821253103 184 181 168 1.49544595322275 31 2430 14 2989 13 1791 34 9704 10 2492
3792 2.8931206331150086 3.9724933522029398 0.44659199882382816 12 19 40 1.1163067223658609 14 12830 13 8654 10 7675
2102 8.0905717815193849 3.3013881915573946 3.2392250462886394 169 170 161 0.76762890220276003 34 9726 31 2433
2106 2.9132577080720305 3.7343557057312053 1.3890631109695255 19 23 27 0.99837568582567671 32 3465 31 3270 14 9952 13 6683
5557 1.5480307612671289 4.575249675237834 1.3785297818354183 2 10 29 1.5287882565593589 9 11633 8 14724 7 13978 6 13432
4010 2.5309580781243777 -0.55040763913686219 1.5981230259874999 225 230 233 1.840381778062542 13 9402 12 9384 11 7672 10 8351 31 10026
2107 2.6530653185775201 3.6471707418259518 1.429730227891834 13 15 27 0.13326831554303301 32 5932 31 3299 30 3799 29 6828
2108 2.6870613074217333 3.7801054915017183 1.3665606093838312 6 10 21 0.33172626872598687 33 2949 31 3387
3807 3.5659967969042001 4.4899583338925915 1.0303932710152324 41 50 60 0.60624512828460964 14 12926 13 8775 12 8956
2109 2.5606678276473747 4.1266910136095971 1.1510561694537851 8 9 14 0.48064810423666815 32 6118 37 11260 31 3822 30 4114 12 3377 43 6366
3800 3.8597817276897044 4.3312078364038014 1.1504376920508217 34 40 52 1.5064126224246626 13 8712 9 4458
3497 2.1762289945032713 5.3328797857539758 1.307291924475334 7 22 52 1.7113627464134791 14 15042 15 13389 16 10131
2110 2.1618119429114881 3.9910967991099273 1.1840005666073556 8 11 16 0.31297670803782918 35 6982 31 3899 30 4257
13811 1.7527799038506615 2.1446402115920074 0.35616417423496666 167 170 169 0.99331799355855577 79 1446 64 1073 105 1056 94 1054 72 957 102 1002
2112 5.5326318652213304 6.0347038670823707 1.1534421363912133 91 82 65 0.93391013699662562 33 6296 31 4127
3056 2.6410287566187112 3.1410657066593735 1.5884153803805505 40 52 70 1.7512410902547377 31 10797 14 15194
2113 2.7398343022700438 4.5263313141945405 0.93561833485206558 2 3 8 0.23409957774523057 32 6304 31 4188 30 4312
2115 2.9895854397387347 4.7281798455615229 0.82923441497375994 34 40 48 1.3372249977590727 34 8135 31 4264 30 4313
3575 1.6876602936266072 -1.212424182675647 4.7086154612787254 169 181 193 1.6459035196935823 31 5781 13 1379 12 5019 16 9020
2116 1.7253546269603608 4.1200829101048653 1.0501163564828062 2 9 19 0.71803385702986622 32 6188 31 4354 30 4629 29 7325 14 5355 15 5179
2118 2.7365913165464737 5.0739275825120513 0.59081212105598557 47 55 66 0.51533573395962462 35 7529 31 4591
3064 0.85198034695184366 -1.6191287515811132 5.1719238507741849 20 93 161 1.3295753108421178 30 10914 13 10813
2121 2.9820365627972887 -0.29042384997507859 2.4236563501081068 140 147 157 1.625268499173476 33 5012 31 5634 30 8270 14 8394 15 11201 13 8185
13765 1.8669671788876936 3.7471707330389092 1.2870921693184449 54 66 89 0.74029403747256162 79 1227 64 632 105 839 94 601 87 349 113 273 25 7100 62 15980 26 7439
2122 0.60298363757072904 -3.7649334541711985 6.2662577055236683 28 59 105 1.8252314992744438 35 5031 31 5644 30 8301
4090 3.6140923789389108 4.2530101876113324 1.1683261075320108 76 79 86 1.4172991056896846 14 9934 12 7627 9 4498
2123 0.60298363757072904 -3.7649334541711985 6.2662577055236683 28 59 105 1.8252314992744438 35 5032 31 5645 30 8302
3583 7.9172171674813043 3.1626291991617714 3.1525251867419848 49 58 75 1.1699600411331075 14 2904 13 1729 12 5333
2124 -0.65488445765789527 -2.8035548957475291 5.6350947369621975 50 128 194 3.0140640641296943 33 694 31 5757 30 8414
3068 5.535798745264036 -0.58218571556122489 2.2604996200503491 157 160 168 1.7276754296219057 29 2683 15 392 28 6248 27 12506 2 5552
2125 4.2567023349350066 -0.60486404077743761 5.0167552200251508 83 132 202 1.0271821915960893 33 2067 31 5766 30 5819
3577 5.8275135627463976 0.83585226784892919 4.3485264155760719 183 185 178 1.7283666658853856 38 4528 13 1457 12 2351
2126 5.4840329785691235 0.52651450752300866 4.4716966808962653 43 97 161 1.4086338262140192 33 2460 31 5815 13 1426 12 5131 34 6986 27 12565 17 15715 19 21632 20 7464
14334 1.508857540514922 2.7140171283469683 0.57308526702426699 123 167 209 1.591437226784354 68 831 98 788 83 1005 75 546 116 844 90 820 102 1028
2127 0.34412829319623034 -0.78777708998404639 4.0628596911365928 120 142 156 1.6097251678615052 33 1544 31 5883 12 2269 13 1603
3008 1.7436059118731979 0.19916777590228465 4.1890389601375988 83 151 221 1.5019675577891849 30 9574 15 12861 13 8547
2129 7.0578807750419124 2.1078524375607381 3.6271086395408827 199 197 182 1.3464378323858981 33 5616 34 9450 37 12864 31 5897 29 9653
4034 1.480956249780423 -1.2412304493328183 4.8160955853707623 20 22 34 2.1150548197627259 13 5934 12 5050 9 3742 8 9705 7 12757 6 12371
2131 7.3764423037145974 2.1858831435836295 4.0132599016746777 0 0 0 0.37685616918963594 32 7939 34 10529
3527 1.0369510697081188 0.1871980849603834 4.1115839202312534 55 140 217 2.3877037039902627 14 15121 13 10829 16 10535 30 10928
2853 3.8840557963374471 7.0233008382743485 0.59975673837248811 52 52 54 0.6367917506958457 30 10505 29 13368 6 13867
2132 0.83421927775077021 -0.24179447205357224 4.4438131504907723 47 119 193 1.62696264121773 33 2124 31 5986 30 6516
2133 8.180025846421092 3.4166205269904113 3.1617915191586805 41 65 99 1.2454250074134463 34 11478 31 6006 30 6152 29 4787 19 9838
3016 2.8602435372535364 -0.32317872690845939 2.3054158639302633 216 226 229 1.0265302624575914 30 9981 14 14253
2137 8.0741465944740867 4.3155038727961008 2.6853126421999391 39 74 114 0.99418590118901096 33 5896 31 6147 14 9527
3883 2.3947036833290034 4.2127438791205511 1.0831181828559877 32 42 52 1.2448718211047229 14 14455 13 9754 12 9745 11 7991 10 8704 9 10353 8 13180 45 8866 60 11903 61 10749 43 8514 44 9675
2138 -0.26247836532540719 0.42519247934347593 3.913493140111191 27 111 188 1.9732093913419171 33 2374 31 6174 30 8771 29 12302
3535 3.0983298907426176 7.2006185992291742 0.45176989201895978 6 65 121 0.69713495467568143 14 15180 15 13631 13 10923
2861 0.76657222836482575 -0.81821163859338786 4.6312237476970548 8 14 38 1.6358870345949004 30 10067 29 13501 28 9425
2140 -0.75165566478082635 0.24515738719291411 3.9765940127038055 2 71 146 0.88512095952726499 33 2301 31 6185 30 9716
3529 1.4931059831001166 4.928209010037345 1.5597379204575863 85 174 242 1.2841096958677776 14 15141 15 13599 13 10888
